-4.269019 0.460204 -11.690063
-4.285511 0.460204 -11.690063
-4.302004 0.460204 -11.690063
-4.593365 0.489496 -12.434127
-4.628450 0.489496 -12.434127
-4.639430 0.488805 -12.416564
-4.598492 0.482669 -12.260708
-4.564857 0.477343 -12.125418
-4.489086 0.467667 -11.879632
-4.433944 0.460204 -11.690063
-4.450437 0.460204 -11.690063
-4.466929 0.460204 -11.690063
-4.483422 0.460204 -11.690063
-4.499915 0.460204 -11.690063
-4.516407 0.460204 -11.690063
-4.532900 0.460204 -11.690063
-4.549392 0.460204 -11.690063
-4.565885 0.460204 -11.690063
-4.582377 0.460204 -11.690063
-4.598870 0.460204 -11.690063
-4.615363 0.460204 -11.690063
-4.933648 0.490189 -12.451738
-4.958238 0.490885 -12.469400
-4.954746 0.488805 -12.416564
2.443460 0.443712 -11.690063
2.426968 0.443712 -11.690063
2.410475 0.443712 -11.690063
2.393982 0.443712 -11.690063
2.377490 0.443712 -11.690063
2.360997 0.443712 -11.690063
2.344505 0.443712 -11.690063
2.328012 0.443712 -11.690063
2.311520 0.443712 -11.690063
2.295027 0.443712 -11.690063
2.278534 0.443712 -11.690063
2.262042 0.443712 -11.690063
2.245549 0.443712 -11.690063
2.229057 0.443712 -11.690063
2.212564 0.443712 -11.690063
2.196072 0.443712 -11.690063
2.179579 0.443712 -11.690063
2.163086 0.443712 -11.690063
2.146594 0.443712 -11.690063
2.130101 0.443712 -11.690063
2.113609 0.443712 -11.690063
2.097116 0.443712 -11.690063
2.080623 0.443712 -11.690063
2.064131 0.443712 -11.690063
2.047638 0.443712 -11.690063
2.031146 0.443712 -11.690063
2.014653 0.443712 -11.690063
1.998161 0.443712 -11.690063
1.981668 0.443712 -11.690063
1.965175 0.443712 -11.690063
1.948683 0.443712 -11.690063
1.932190 0.443712 -11.690063
1.915698 0.443712 -11.690063
1.899205 0.443712 -11.690063
1.882712 0.443712 -11.690063
1.866220 0.443712 -11.690063
1.849727 0.443712 -11.690063
1.833235 0.443712 -11.690063
1.816742 0.443712 -11.690063
1.800250 0.443712 -11.690063
1.783757 0.443712 -11.690063
1.767264 0.443712 -11.690063
1.750772 0.443712 -11.690063
1.734279 0.443712 -11.690063
1.717787 0.443712 -11.690063
1.701294 0.443712 -11.690063
1.684802 0.443712 -11.690063
1.668309 0.443712 -11.690063
1.651816 0.443712 -11.690063
1.635324 0.443712 -11.690063
1.618831 0.443712 -11.690063
1.602339 0.443712 -11.690063
1.585846 0.443712 -11.690063
1.569354 0.443712 -11.690063
1.552861 0.443712 -11.690063
1.536368 0.443712 -11.690063
1.519876 0.443712 -11.690063
1.503383 0.443712 -11.690063
1.486891 0.443712 -11.690063
1.470398 0.443712 -11.690063
1.453905 0.443712 -11.690063
1.437413 0.443712 -11.690063
1.420920 0.443712 -11.690063
1.404428 0.443712 -11.690063
1.387935 0.443712 -11.690063
1.371443 0.443712 -11.690063
1.354950 0.443712 -11.690063
1.338457 0.443712 -11.690063
1.321965 0.443712 -11.690063
1.305472 0.443712 -11.690063
1.288980 0.443712 -11.690063
1.272487 0.443712 -11.690063
1.255995 0.443712 -11.690063
1.239502 0.443712 -11.690063
1.223009 0.443712 -11.690063
1.206517 0.443712 -11.690063
1.190024 0.443712 -11.690063
1.173532 0.443712 -11.690063
1.157039 0.443712 -11.690063
1.140547 0.443712 -11.690063
1.124054 0.443712 -11.690063
1.107561 0.443712 -11.690063
1.091069 0.443712 -11.690063
1.074576 0.443712 -11.690063
1.058084 0.443712 -11.690063
1.041591 0.443712 -11.690063
1.025098 0.443712 -11.690063
1.008606 0.443712 -11.690063
0.992113 0.443712 -11.690063
0.975621 0.443712 -11.690063
0.959128 0.443712 -11.690063
0.942636 0.443712 -11.690063
0.926143 0.443712 -11.690063
0.909650 0.443712 -11.690063
0.893158 0.443712 -11.690063
0.876665 0.443712 -11.690063
0.860173 0.443712 -11.690063
0.843680 0.443712 -11.690063
0.827188 0.443712 -11.690063
0.810695 0.443712 -11.690063
0.794202 0.443712 -11.690063
0.777710 0.443712 -11.690063
0.761217 0.443712 -11.690063
0.744725 0.443712 -11.690063
0.728232 0.443712 -11.690063
0.711740 0.443712 -11.690063
0.695247 0.443712 -11.690063
0.678754 0.443712 -11.690063
0.662262 0.443712 -11.690063
0.645769 0.443712 -11.690063
0.579799 0.443712 -11.690063
0.563306 0.443712 -11.690063
0.546814 0.443712 -11.690063
0.530321 0.443712 -11.690063
0.513829 0.443712 -11.690063
0.497336 0.443712 -11.690063
0.480843 0.443712 -11.690063
0.381888 0.443712 -11.690063
0.365395 0.443712 -11.690063
0.348903 0.443712 -11.690063
0.332410 0.443712 -11.690063
0.315918 0.443712 -11.690063
0.233455 0.443712 -11.690063
0.216962 0.443712 -11.690063
0.200470 0.443712 -11.690063
0.183977 0.443712 -11.690063
0.167484 0.443712 -11.690063
0.150992 0.443712 -11.690063
0.101514 0.443712 -11.690063
0.085022 0.443712 -11.690063
0.068529 0.443712 -11.690063
0.052036 0.443712 -11.690063
0.035544 0.443712 -11.690063
0.019051 0.443712 -11.690063
-0.063412 0.443712 -11.690063
-0.079904 0.443712 -11.690063
-0.096397 0.443712 -11.690063
-0.112889 0.443712 -11.690063
-3.788886 0.453358 -11.944195
-3.774241 0.443712 -11.690063
-3.790734 0.443712 -11.690063
-3.807226 0.443712 -11.690063
-3.823719 0.443712 -11.690063
-3.840212 0.443712 -11.690063
-3.856704 0.443712 -11.690063
-3.873197 0.443712 -11.690063
-3.889689 0.443712 -11.690063
-3.906182 0.443712 -11.690063
-3.922674 0.443712 -11.690063
-3.939167 0.443712 -11.690063
-3.955660 0.443712 -11.690063
-3.972152 0.443712 -11.690063
-3.988645 0.443712 -11.690063
-4.005137 0.443712 -11.690063
-4.021630 0.443712 -11.690063
-4.038123 0.443712 -11.690063
-4.054615 0.443712 -11.690063
-4.071108 0.443712 -11.690063
-4.087600 0.443712 -11.690063
-4.104093 0.443712 -11.690063
-4.120585 0.443712 -11.690063
-4.137078 0.443712 -11.690063
-4.153571 0.443712 -11.690063
-4.170063 0.443712 -11.690063
-4.186556 0.443712 -11.690063
-4.203048 0.443712 -11.690063
-4.219541 0.443712 -11.690063
-4.236033 0.443712 -11.690063
-4.252526 0.443712 -11.690063
-4.269019 0.443712 -11.690063
-4.285511 0.443712 -11.690063
-4.302004 0.443712 -11.690063
-4.522994 0.464723 -12.243631
-4.602411 0.469299 -12.364174
-4.581194 0.465371 -12.260708
-4.579332 0.463432 -12.209621
-4.552299 0.458970 -12.092060
-4.483028 0.450299 -11.863600
-4.433944 0.443712 -11.690063
-4.450437 0.443712 -11.690063
-4.466929 0.443712 -11.690063
-4.483422 0.443712 -11.690063
-4.499915 0.443712 -11.690063
-4.516407 0.443712 -11.690063
-4.532900 0.443712 -11.690063
-4.549392 0.443712 -11.690063
-4.565885 0.443712 -11.690063
-4.582377 0.443712 -11.690063
-4.598870 0.443712 -11.690063
-4.615363 0.443712 -11.690063
-4.912772 0.470622 -12.399052
-4.930264 0.470622 -12.399052
-4.933840 0.469299 -12.364174
2.443460 0.427219 -11.690063
2.426968 0.427219 -11.690063
2.410475 0.427219 -11.690063
2.393982 0.427219 -11.690063
2.377490 0.427219 -11.690063
2.360997 0.427219 -11.690063
2.344505 0.427219 -11.690063
2.328012 0.427219 -11.690063
2.311520 0.427219 -11.690063
2.295027 0.427219 -11.690063
2.278534 0.427219 -11.690063
2.262042 0.427219 -11.690063
2.245549 0.427219 -11.690063
2.229057 0.427219 -11.690063
2.212564 0.427219 -11.690063
2.196072 0.427219 -11.690063
2.179579 0.427219 -11.690063
2.163086 0.427219 -11.690063
2.146594 0.427219 -11.690063
2.130101 0.427219 -11.690063
2.113609 0.427219 -11.690063
2.097116 0.427219 -11.690063
2.080623 0.427219 -11.690063
2.064131 0.427219 -11.690063
2.047638 0.427219 -11.690063
2.031146 0.427219 -11.690063
2.014653 0.427219 -11.690063
1.998161 0.427219 -11.690063
1.981668 0.427219 -11.690063
1.965175 0.427219 -11.690063
1.948683 0.427219 -11.690063
1.932190 0.427219 -11.690063
1.915698 0.427219 -11.690063
1.899205 0.427219 -11.690063
1.882712 0.427219 -11.690063
1.866220 0.427219 -11.690063
1.849727 0.427219 -11.690063
1.833235 0.427219 -11.690063
1.816742 0.427219 -11.690063
1.800250 0.427219 -11.690063
1.783757 0.427219 -11.690063
1.767264 0.427219 -11.690063
1.750772 0.427219 -11.690063
1.734279 0.427219 -11.690063
1.717787 0.427219 -11.690063
1.701294 0.427219 -11.690063
1.684802 0.427219 -11.690063
1.668309 0.427219 -11.690063
1.651816 0.427219 -11.690063
1.635324 0.427219 -11.690063
1.618831 0.427219 -11.690063
1.602339 0.427219 -11.690063
1.585846 0.427219 -11.690063
1.569354 0.427219 -11.690063
1.552861 0.427219 -11.690063
1.536368 0.427219 -11.690063
1.519876 0.427219 -11.690063
1.503383 0.427219 -11.690063
1.486891 0.427219 -11.690063
1.470398 0.427219 -11.690063
1.453905 0.427219 -11.690063
1.437413 0.427219 -11.690063
1.420920 0.427219 -11.690063
1.404428 0.427219 -11.690063
1.387935 0.427219 -11.690063
1.371443 0.427219 -11.690063
1.354950 0.427219 -11.690063
1.338457 0.427219 -11.690063
1.321965 0.427219 -11.690063
1.305472 0.427219 -11.690063
1.288980 0.427219 -11.690063
1.272487 0.427219 -11.690063
1.255995 0.427219 -11.690063
1.239502 0.427219 -11.690063
1.223009 0.427219 -11.690063
1.206517 0.427219 -11.690063
1.190024 0.427219 -11.690063
1.173532 0.427219 -11.690063
1.157039 0.427219 -11.690063
1.140547 0.427219 -11.690063
1.124054 0.427219 -11.690063
1.107561 0.427219 -11.690063
1.091069 0.427219 -11.690063
1.074576 0.427219 -11.690063
1.058084 0.427219 -11.690063
1.041591 0.427219 -11.690063
1.025098 0.427219 -11.690063
1.008606 0.427219 -11.690063
0.992113 0.427219 -11.690063
0.975621 0.427219 -11.690063
0.959128 0.427219 -11.690063
0.942636 0.427219 -11.690063
0.926143 0.427219 -11.690063
0.909650 0.427219 -11.690063
0.893158 0.427219 -11.690063
0.876665 0.427219 -11.690063
0.860173 0.427219 -11.690063
0.843680 0.427219 -11.690063
0.827188 0.427219 -11.690063
0.810695 0.427219 -11.690063
0.794202 0.427219 -11.690063
0.777710 0.427219 -11.690063
0.761217 0.427219 -11.690063
0.744725 0.427219 -11.690063
0.728232 0.427219 -11.690063
0.711740 0.427219 -11.690063
0.695247 0.427219 -11.690063
0.678754 0.427219 -11.690063
0.662262 0.427219 -11.690063
0.645769 0.427219 -11.690063
0.579799 0.427219 -11.690063
0.563306 0.427219 -11.690063
0.546814 0.427219 -11.690063
0.530321 0.427219 -11.690063
0.513829 0.427219 -11.690063
0.497336 0.427219 -11.690063
0.480843 0.427219 -11.690063
0.381888 0.427219 -11.690063
0.365395 0.427219 -11.690063
0.348903 0.427219 -11.690063
0.332410 0.427219 -11.690063
0.315918 0.427219 -11.690063
0.233455 0.427219 -11.690063
0.216962 0.427219 -11.690063
0.200470 0.427219 -11.690063
0.183977 0.427219 -11.690063
0.167484 0.427219 -11.690063
0.150992 0.427219 -11.690063
0.101514 0.427219 -11.690063
0.085022 0.427219 -11.690063
0.068529 0.427219 -11.690063
0.052036 0.427219 -11.690063
0.035544 0.427219 -11.690063
0.019051 0.427219 -11.690063
-0.063412 0.427219 -11.690063
-0.079904 0.427219 -11.690063
-0.096397 0.427219 -11.690063
-0.112889 0.427219 -11.690063
-3.772034 0.436507 -11.944195
-3.778618 0.435324 -11.911826
-3.790287 0.434735 -11.895707
-3.796794 0.433561 -11.863600
-3.757749 0.427219 -11.690063
-3.774241 0.427219 -11.690063
-3.790734 0.427219 -11.690063
-3.807226 0.427219 -11.690063
-3.823719 0.427219 -11.690063
-3.840212 0.427219 -11.690063
-3.856704 0.427219 -11.690063
-3.873197 0.427219 -11.690063
-3.889689 0.427219 -11.690063
-3.906182 0.427219 -11.690063
-3.922674 0.427219 -11.690063
-3.939167 0.427219 -11.690063
-3.955660 0.427219 -11.690063
-3.972152 0.427219 -11.690063
-3.988645 0.427219 -11.690063
-4.005137 0.427219 -11.690063
-4.021630 0.427219 -11.690063
-4.038123 0.427219 -11.690063
-4.054615 0.427219 -11.690063
-4.071108 0.427219 -11.690063
-4.087600 0.427219 -11.690063
-4.104093 0.427219 -11.690063
-4.120585 0.427219 -11.690063
-4.137078 0.427219 -11.690063
-4.153571 0.427219 -11.690063
-4.170063 0.427219 -11.690063
-4.186556 0.427219 -11.690063
-4.203048 0.427219 -11.690063
-4.219541 0.427219 -11.690063
-4.236033 0.427219 -11.690063
-4.252526 0.427219 -11.690063
-4.269019 0.427219 -11.690063
-4.285511 0.427219 -11.690063
-4.302004 0.427219 -11.690063
-4.522994 0.447450 -12.243631
-4.557540 0.447450 -12.243631
-4.562106 0.446207 -12.209621
-4.554032 0.443742 -12.142165
-4.521204 0.438892 -12.009464
-4.470961 0.432394 -11.831666
-4.433944 0.427219 -11.690063
-4.450437 0.427219 -11.690063
-4.466929 0.427219 -11.690063
-4.483422 0.427219 -11.690063
-4.499915 0.427219 -11.690063
-4.516407 0.427219 -11.690063
-4.532900 0.427219 -11.690063
-4.549392 0.427219 -11.690063
-4.565885 0.427219 -11.690063
-4.582377 0.427219 -11.690063
-4.598870 0.427219 -11.690063
-4.615363 0.427219 -11.690063
-4.878369 0.449956 -12.312223
-4.909491 0.451220 -12.346808
-4.899385 0.448700 -12.277832
2.443460 0.410727 -11.690063
2.426968 0.410727 -11.690063
2.410475 0.410727 -11.690063
2.393982 0.410727 -11.690063
2.377490 0.410727 -11.690063
2.360997 0.410727 -11.690063
2.344505 0.410727 -11.690063
2.328012 0.410727 -11.690063
2.311520 0.410727 -11.690063
2.295027 0.410727 -11.690063
2.278534 0.410727 -11.690063
2.262042 0.410727 -11.690063
2.245549 0.410727 -11.690063
2.229057 0.410727 -11.690063
2.212564 0.410727 -11.690063
2.196072 0.410727 -11.690063
2.179579 0.410727 -11.690063
2.163086 0.410727 -11.690063
2.146594 0.410727 -11.690063
2.130101 0.410727 -11.690063
2.113609 0.410727 -11.690063
2.097116 0.410727 -11.690063
2.080623 0.410727 -11.690063
2.064131 0.410727 -11.690063
2.047638 0.410727 -11.690063
2.031146 0.410727 -11.690063
2.014653 0.410727 -11.690063
1.998161 0.410727 -11.690063
1.981668 0.410727 -11.690063
1.965175 0.410727 -11.690063
1.948683 0.410727 -11.690063
1.932190 0.410727 -11.690063
1.915698 0.410727 -11.690063
1.899205 0.410727 -11.690063
1.882712 0.410727 -11.690063
1.866220 0.410727 -11.690063
1.849727 0.410727 -11.690063
1.833235 0.410727 -11.690063
1.816742 0.410727 -11.690063
1.800250 0.410727 -11.690063
1.783757 0.410727 -11.690063
1.767264 0.410727 -11.690063
1.750772 0.410727 -11.690063
1.734279 0.410727 -11.690063
1.717787 0.410727 -11.690063
1.701294 0.410727 -11.690063
1.684802 0.410727 -11.690063
1.668309 0.410727 -11.690063
1.651816 0.410727 -11.690063
1.635324 0.410727 -11.690063
1.618831 0.410727 -11.690063
1.602339 0.410727 -11.690063
1.585846 0.410727 -11.690063
1.569354 0.410727 -11.690063
1.552861 0.410727 -11.690063
1.536368 0.410727 -11.690063
1.519876 0.410727 -11.690063
1.503383 0.410727 -11.690063
1.486891 0.410727 -11.690063
1.470398 0.410727 -11.690063
1.453905 0.410727 -11.690063
1.437413 0.410727 -11.690063
1.420920 0.410727 -11.690063
1.404428 0.410727 -11.690063
1.387935 0.410727 -11.690063
1.371443 0.410727 -11.690063
1.354950 0.410727 -11.690063
1.338457 0.410727 -11.690063
1.321965 0.410727 -11.690063
1.305472 0.410727 -11.690063
1.288980 0.410727 -11.690063
1.272487 0.410727 -11.690063
1.255995 0.410727 -11.690063
1.239502 0.410727 -11.690063
1.223009 0.410727 -11.690063
1.206517 0.410727 -11.690063
1.190024 0.410727 -11.690063
1.173532 0.410727 -11.690063
1.157039 0.410727 -11.690063
1.140547 0.410727 -11.690063
1.124054 0.410727 -11.690063
1.107561 0.410727 -11.690063
1.091069 0.410727 -11.690063
1.074576 0.410727 -11.690063
1.058084 0.410727 -11.690063
1.041591 0.410727 -11.690063
1.025098 0.410727 -11.690063
1.008606 0.410727 -11.690063
0.992113 0.410727 -11.690063
0.975621 0.410727 -11.690063
0.959128 0.410727 -11.690063
0.942636 0.410727 -11.690063
0.926143 0.410727 -11.690063
0.909650 0.410727 -11.690063
0.893158 0.410727 -11.690063
0.876665 0.410727 -11.690063
0.860173 0.410727 -11.690063
0.843680 0.410727 -11.690063
0.827188 0.410727 -11.690063
0.810695 0.410727 -11.690063
0.794202 0.410727 -11.690063
0.777710 0.410727 -11.690063
0.761217 0.410727 -11.690063
0.744725 0.410727 -11.690063
0.728232 0.410727 -11.690063
0.711740 0.410727 -11.690063
0.695247 0.410727 -11.690063
0.678754 0.410727 -11.690063
0.662262 0.410727 -11.690063
0.579799 0.410727 -11.690063
0.563306 0.410727 -11.690063
0.546814 0.410727 -11.690063
0.530321 0.410727 -11.690063
0.513829 0.410727 -11.690063
0.497336 0.410727 -11.690063
0.480843 0.410727 -11.690063
0.381888 0.410727 -11.690063
0.365395 0.410727 -11.690063
0.348903 0.410727 -11.690063
0.332410 0.410727 -11.690063
0.315918 0.410727 -11.690063
0.216962 0.410727 -11.690063
0.200470 0.410727 -11.690063
0.183977 0.410727 -11.690063
0.167484 0.410727 -11.690063
0.150992 0.410727 -11.690063
0.101514 0.410727 -11.690063
0.085022 0.410727 -11.690063
0.068529 0.410727 -11.690063
0.052036 0.410727 -11.690063
0.035544 0.410727 -11.690063
0.019051 0.410727 -11.690063
-0.063412 0.410727 -11.690063
-0.079904 0.410727 -11.690063
-0.096397 0.410727 -11.690063
-0.112889 0.410727 -11.690063
-3.766916 0.419086 -11.927989
-3.773504 0.417952 -11.895707
-3.780057 0.416824 -11.863600
-3.741256 0.410727 -11.690063
-3.757749 0.410727 -11.690063
-3.774241 0.410727 -11.690063
-3.790734 0.410727 -11.690063
-3.807226 0.410727 -11.690063
-3.823719 0.410727 -11.690063
-3.840212 0.410727 -11.690063
-3.856704 0.410727 -11.690063
-3.873197 0.410727 -11.690063
-3.889689 0.410727 -11.690063
-3.906182 0.410727 -11.690063
-3.922674 0.410727 -11.690063
-3.939167 0.410727 -11.690063
-3.955660 0.410727 -11.690063
-3.972152 0.410727 -11.690063
-3.988645 0.410727 -11.690063
-4.005137 0.410727 -11.690063
-4.021630 0.410727 -11.690063
-4.038123 0.410727 -11.690063
-4.054615 0.410727 -11.690063
-4.071108 0.410727 -11.690063
-4.087600 0.410727 -11.690063
-4.104093 0.410727 -11.690063
-4.120585 0.410727 -11.690063
-4.137078 0.410727 -11.690063
-4.153571 0.410727 -11.690063
-4.170063 0.410727 -11.690063
-4.186556 0.410727 -11.690063
-4.203048 0.410727 -11.690063
-4.219541 0.410727 -11.690063
-4.236033 0.410727 -11.690063
-4.252526 0.410727 -11.690063
-4.269019 0.410727 -11.690063
-4.285511 0.410727 -11.690063
-4.302004 0.410727 -11.690063
-4.504174 0.428386 -12.192687
-4.527655 0.428981 -12.209621
-4.519771 0.426611 -12.142165
-4.530643 0.426023 -12.125418
-4.529009 0.424267 -12.075450
-4.502750 0.420226 -11.960445
-4.417452 0.410727 -11.690063
-4.433944 0.410727 -11.690063
-4.450437 0.410727 -11.690063
-4.466929 0.410727 -11.690063
-4.483422 0.410727 -11.690063
-4.499915 0.410727 -11.690063
-4.516407 0.410727 -11.690063
-4.532900 0.410727 -11.690063
-4.549392 0.410727 -11.690063
-4.565885 0.410727 -11.690063
-4.582377 0.410727 -11.690063
-4.598870 0.410727 -11.690063
-4.615363 0.410727 -11.690063
-4.844444 0.429578 -12.226604
-4.868464 0.430176 -12.243631
-4.872167 0.428981 -12.209621
2.443460 0.394234 -11.690063
2.426968 0.394234 -11.690063
2.410475 0.394234 -11.690063
2.393982 0.394234 -11.690063
2.377490 0.394234 -11.690063
2.360997 0.394234 -11.690063
2.344505 0.394234 -11.690063
2.328012 0.394234 -11.690063
2.311520 0.394234 -11.690063
2.295027 0.394234 -11.690063
2.278534 0.394234 -11.690063
2.262042 0.394234 -11.690063
2.245549 0.394234 -11.690063
2.229057 0.394234 -11.690063
2.212564 0.394234 -11.690063
2.196072 0.394234 -11.690063
2.179579 0.394234 -11.690063
2.163086 0.394234 -11.690063
2.146594 0.394234 -11.690063
2.130101 0.394234 -11.690063
2.113609 0.394234 -11.690063
2.097116 0.394234 -11.690063
2.080623 0.394234 -11.690063
2.064131 0.394234 -11.690063
2.047638 0.394234 -11.690063
2.031146 0.394234 -11.690063
2.014653 0.394234 -11.690063
1.998161 0.394234 -11.690063
1.981668 0.394234 -11.690063
1.965175 0.394234 -11.690063
1.948683 0.394234 -11.690063
1.932190 0.394234 -11.690063
1.915698 0.394234 -11.690063
1.899205 0.394234 -11.690063
1.882712 0.394234 -11.690063
1.866220 0.394234 -11.690063
1.849727 0.394234 -11.690063
1.833235 0.394234 -11.690063
1.816742 0.394234 -11.690063
1.800250 0.394234 -11.690063
1.783757 0.394234 -11.690063
1.767264 0.394234 -11.690063
1.750772 0.394234 -11.690063
1.734279 0.394234 -11.690063
1.717787 0.394234 -11.690063
1.701294 0.394234 -11.690063
1.684802 0.394234 -11.690063
1.668309 0.394234 -11.690063
1.651816 0.394234 -11.690063
1.635324 0.394234 -11.690063
1.618831 0.394234 -11.690063
1.602339 0.394234 -11.690063
1.585846 0.394234 -11.690063
1.569354 0.394234 -11.690063
1.552861 0.394234 -11.690063
1.536368 0.394234 -11.690063
1.519876 0.394234 -11.690063
1.503383 0.394234 -11.690063
1.486891 0.394234 -11.690063
1.470398 0.394234 -11.690063
1.453905 0.394234 -11.690063
1.437413 0.394234 -11.690063
1.420920 0.394234 -11.690063
1.404428 0.394234 -11.690063
1.387935 0.394234 -11.690063
1.371443 0.394234 -11.690063
1.354950 0.394234 -11.690063
1.338457 0.394234 -11.690063
1.321965 0.394234 -11.690063
1.305472 0.394234 -11.690063
1.288980 0.394234 -11.690063
1.272487 0.394234 -11.690063
1.255995 0.394234 -11.690063
1.239502 0.394234 -11.690063
1.223009 0.394234 -11.690063
1.206517 0.394234 -11.690063
1.190024 0.394234 -11.690063
1.173532 0.394234 -11.690063
1.157039 0.394234 -11.690063
1.140547 0.394234 -11.690063
1.124054 0.394234 -11.690063
1.107561 0.394234 -11.690063
1.091069 0.394234 -11.690063
1.074576 0.394234 -11.690063
1.058084 0.394234 -11.690063
1.041591 0.394234 -11.690063
1.025098 0.394234 -11.690063
1.008606 0.394234 -11.690063
0.992113 0.394234 -11.690063
0.975621 0.394234 -11.690063
0.959128 0.394234 -11.690063
0.942636 0.394234 -11.690063
0.926143 0.394234 -11.690063
0.909650 0.394234 -11.690063
0.893158 0.394234 -11.690063
0.876665 0.394234 -11.690063
0.860173 0.394234 -11.690063
0.843680 0.394234 -11.690063
0.827188 0.394234 -11.690063
0.810695 0.394234 -11.690063
0.794202 0.394234 -11.690063
0.777710 0.394234 -11.690063
0.761217 0.394234 -11.690063
0.744725 0.394234 -11.690063
0.728232 0.394234 -11.690063
0.711740 0.394234 -11.690063
0.695247 0.394234 -11.690063
0.678754 0.394234 -11.690063
0.662262 0.394234 -11.690063
0.563306 0.394234 -11.690063
0.546814 0.394234 -11.690063
0.530321 0.394234 -11.690063
0.513829 0.394234 -11.690063
0.497336 0.394234 -11.690063
0.480843 0.394234 -11.690063
0.381888 0.394234 -11.690063
0.365395 0.394234 -11.690063
0.348903 0.394234 -11.690063
0.332410 0.394234 -11.690063
0.315918 0.394234 -11.690063
0.216962 0.394234 -11.690063
0.200470 0.394234 -11.690063
0.183977 0.394234 -11.690063
0.167484 0.394234 -11.690063
0.150992 0.394234 -11.690063
0.101514 0.394234 -11.690063
0.085022 0.394234 -11.690063
0.068529 0.394234 -11.690063
0.052036 0.394234 -11.690063
0.035544 0.394234 -11.690063
0.019051 0.394234 -11.690063
-0.063412 0.394234 -11.690063
-0.079904 0.394234 -11.690063
-0.096397 0.394234 -11.690063
-0.112889 0.394234 -11.690063
-3.761812 0.401713 -11.911826
-3.768405 0.400627 -11.879632
-3.774963 0.399547 -11.847611
-3.741256 0.394234 -11.690063
-3.757749 0.394234 -11.690063
-3.774241 0.394234 -11.690063
-3.790734 0.394234 -11.690063
-3.807226 0.394234 -11.690063
-3.823719 0.394234 -11.690063
-3.840212 0.394234 -11.690063
-3.856704 0.394234 -11.690063
-3.873197 0.394234 -11.690063
-3.889689 0.394234 -11.690063
-3.906182 0.394234 -11.690063
-3.922674 0.394234 -11.690063
-3.939167 0.394234 -11.690063
-3.955660 0.394234 -11.690063
-3.972152 0.394234 -11.690063
-3.988645 0.394234 -11.690063
-4.005137 0.394234 -11.690063
-4.021630 0.394234 -11.690063
-4.038123 0.394234 -11.690063
-4.054615 0.394234 -11.690063
-4.071108 0.394234 -11.690063
-4.087600 0.394234 -11.690063
-4.104093 0.394234 -11.690063
-4.120585 0.394234 -11.690063
-4.137078 0.394234 -11.690063
-4.153571 0.394234 -11.690063
-4.170063 0.394234 -11.690063
-4.186556 0.394234 -11.690063
-4.203048 0.394234 -11.690063
-4.219541 0.394234 -11.690063
-4.236033 0.394234 -11.690063
-4.252526 0.394234 -11.690063
-4.269019 0.394234 -11.690063
-4.285511 0.394234 -11.690063
-4.302004 0.394234 -11.690063
-4.436488 0.405006 -12.009464
-4.490236 0.408353 -12.108716
-4.470375 0.405006 -12.009464
-4.487318 0.405006 -12.009464
-4.485876 0.403352 -11.960445
-4.490531 0.402258 -11.927989
-4.417452 0.394234 -11.690063
-4.433944 0.394234 -11.690063
-4.450437 0.394234 -11.690063
-4.466929 0.394234 -11.690063
-4.483422 0.394234 -11.690063
-4.499915 0.394234 -11.690063
-4.516407 0.394234 -11.690063
-4.532900 0.394234 -11.690063
-4.549392 0.394234 -11.690063
-4.565885 0.394234 -11.690063
-4.582377 0.394234 -11.690063
-4.598870 0.394234 -11.690063
-4.615363 0.394234 -11.690063
-4.817642 0.410047 -12.158959
-4.841493 0.410615 -12.175800
-4.838565 0.408916 -12.125418
2.443460 0.377742 -11.690063
2.426968 0.377742 -11.690063
2.410475 0.377742 -11.690063
2.393982 0.377742 -11.690063
2.377490 0.377742 -11.690063
2.360997 0.377742 -11.690063
2.344505 0.377742 -11.690063
2.328012 0.377742 -11.690063
2.311520 0.377742 -11.690063
2.295027 0.377742 -11.690063
2.278534 0.377742 -11.690063
2.262042 0.377742 -11.690063
2.245549 0.377742 -11.690063
2.229057 0.377742 -11.690063
2.212564 0.377742 -11.690063
2.196072 0.377742 -11.690063
2.179579 0.377742 -11.690063
2.163086 0.377742 -11.690063
2.146594 0.377742 -11.690063
2.130101 0.377742 -11.690063
2.113609 0.377742 -11.690063
2.097116 0.377742 -11.690063
2.080623 0.377742 -11.690063
2.064131 0.377742 -11.690063
2.047638 0.377742 -11.690063
2.031146 0.377742 -11.690063
2.014653 0.377742 -11.690063
1.998161 0.377742 -11.690063
1.981668 0.377742 -11.690063
1.965175 0.377742 -11.690063
1.948683 0.377742 -11.690063
1.932190 0.377742 -11.690063
1.915698 0.377742 -11.690063
1.899205 0.377742 -11.690063
1.882712 0.377742 -11.690063
1.866220 0.377742 -11.690063
1.849727 0.377742 -11.690063
1.833235 0.377742 -11.690063
1.816742 0.377742 -11.690063
1.800250 0.377742 -11.690063
1.783757 0.377742 -11.690063
1.767264 0.377742 -11.690063
1.750772 0.377742 -11.690063
1.734279 0.377742 -11.690063
1.717787 0.377742 -11.690063
1.701294 0.377742 -11.690063
1.684802 0.377742 -11.690063
1.668309 0.377742 -11.690063
1.651816 0.377742 -11.690063
1.635324 0.377742 -11.690063
1.618831 0.377742 -11.690063
1.602339 0.377742 -11.690063
1.585846 0.377742 -11.690063
1.569354 0.377742 -11.690063
1.552861 0.377742 -11.690063
1.536368 0.377742 -11.690063
1.519876 0.377742 -11.690063
1.503383 0.377742 -11.690063
1.486891 0.377742 -11.690063
1.470398 0.377742 -11.690063
1.453905 0.377742 -11.690063
1.437413 0.377742 -11.690063
1.420920 0.377742 -11.690063
1.404428 0.377742 -11.690063
1.387935 0.377742 -11.690063
1.371443 0.377742 -11.690063
1.354950 0.377742 -11.690063
1.338457 0.377742 -11.690063
1.321965 0.377742 -11.690063
1.305472 0.377742 -11.690063
1.288980 0.377742 -11.690063
1.272487 0.377742 -11.690063
1.255995 0.377742 -11.690063
1.239502 0.377742 -11.690063
1.223009 0.377742 -11.690063
1.206517 0.377742 -11.690063
1.190024 0.377742 -11.690063
1.173532 0.377742 -11.690063
1.157039 0.377742 -11.690063
1.140547 0.377742 -11.690063
1.124054 0.377742 -11.690063
1.107561 0.377742 -11.690063
1.091069 0.377742 -11.690063
1.074576 0.377742 -11.690063
1.058084 0.377742 -11.690063
1.041591 0.377742 -11.690063
1.025098 0.377742 -11.690063
1.008606 0.377742 -11.690063
0.992113 0.377742 -11.690063
0.975621 0.377742 -11.690063
0.959128 0.377742 -11.690063
0.942636 0.377742 -11.690063
0.926143 0.377742 -11.690063
0.909650 0.377742 -11.690063
0.893158 0.377742 -11.690063
0.876665 0.377742 -11.690063
0.860173 0.377742 -11.690063
0.843680 0.377742 -11.690063
0.827188 0.377742 -11.690063
0.810695 0.377742 -11.690063
0.794202 0.377742 -11.690063
0.777710 0.377742 -11.690063
0.761217 0.377742 -11.690063
0.744725 0.377742 -11.690063
0.728232 0.377742 -11.690063
0.711740 0.377742 -11.690063
0.695247 0.377742 -11.690063
0.678754 0.377742 -11.690063
0.662262 0.377742 -11.690063
0.563306 0.377742 -11.690063
0.546814 0.377742 -11.690063
0.530321 0.377742 -11.690063
0.513829 0.377742 -11.690063
0.497336 0.377742 -11.690063
0.480843 0.377742 -11.690063
0.381888 0.377742 -11.690063
0.365395 0.377742 -11.690063
0.348903 0.377742 -11.690063
0.332410 0.377742 -11.690063
0.315918 0.377742 -11.690063
0.216962 0.377742 -11.690063
0.200470 0.377742 -11.690063
0.183977 0.377742 -11.690063
0.167484 0.377742 -11.690063
0.150992 0.377742 -11.690063
0.101514 0.377742 -11.690063
0.085022 0.377742 -11.690063
0.068529 0.377742 -11.690063
0.052036 0.377742 -11.690063
0.035544 0.377742 -11.690063
0.019051 0.377742 -11.690063
-0.063412 0.377742 -11.690063
-0.079904 0.377742 -11.690063
-0.096397 0.377742 -11.690063
-0.112889 0.377742 -11.690063
-3.768405 0.383867 -11.879632
-3.764815 0.381803 -11.815763
-3.741256 0.377742 -11.690063
-3.757749 0.377742 -11.690063
-3.774241 0.377742 -11.690063
-3.790734 0.377742 -11.690063
-3.807226 0.377742 -11.690063
-3.823719 0.377742 -11.690063
-3.840212 0.377742 -11.690063
-3.856704 0.377742 -11.690063
-3.873197 0.377742 -11.690063
-3.889689 0.377742 -11.690063
-3.906182 0.377742 -11.690063
-3.922674 0.377742 -11.690063
-3.939167 0.377742 -11.690063
-3.955660 0.377742 -11.690063
-3.972152 0.377742 -11.690063
-3.988645 0.377742 -11.690063
-4.005137 0.377742 -11.690063
-4.021630 0.377742 -11.690063
-4.038123 0.377742 -11.690063
-4.054615 0.377742 -11.690063
-4.071108 0.377742 -11.690063
-4.087600 0.377742 -11.690063
-4.104093 0.377742 -11.690063
-4.120585 0.377742 -11.690063
-4.137078 0.377742 -11.690063
-4.153571 0.377742 -11.690063
-4.170063 0.377742 -11.690063
-4.186556 0.377742 -11.690063
-4.203048 0.377742 -11.690063
-4.219541 0.377742 -11.690063
-4.236033 0.377742 -11.690063
-4.252526 0.377742 -11.690063
-4.269019 0.377742 -11.690063
-4.285511 0.377742 -11.690063
-4.302004 0.377742 -11.690063
-4.318496 0.377742 -11.690063
-4.423218 0.385430 -11.927989
-4.434030 0.384907 -11.911826
-4.456874 0.385430 -11.927989
-4.467641 0.384907 -11.911826
-4.448281 0.381803 -11.815763
-4.417452 0.377742 -11.690063
-4.433944 0.377742 -11.690063
-4.450437 0.377742 -11.690063
-4.466929 0.377742 -11.690063
-4.483422 0.377742 -11.690063
-4.499915 0.377742 -11.690063
-4.516407 0.377742 -11.690063
-4.532900 0.377742 -11.690063
-4.549392 0.377742 -11.690063
-4.565885 0.377742 -11.690063
-4.582377 0.377742 -11.690063
-4.598870 0.377742 -11.690063
-4.615363 0.377742 -11.690063
-4.791135 0.390731 -12.092060
-4.814817 0.391269 -12.108716
-4.805425 0.389125 -12.042367
2.443460 0.361249 -11.690063
2.426968 0.361249 -11.690063
2.410475 0.361249 -11.690063
2.393982 0.361249 -11.690063
2.377490 0.361249 -11.690063
2.360997 0.361249 -11.690063
2.344505 0.361249 -11.690063
2.328012 0.361249 -11.690063
2.311520 0.361249 -11.690063
2.295027 0.361249 -11.690063
2.278534 0.361249 -11.690063
2.262042 0.361249 -11.690063
2.245549 0.361249 -11.690063
2.229057 0.361249 -11.690063
2.212564 0.361249 -11.690063
2.196072 0.361249 -11.690063
2.179579 0.361249 -11.690063
2.163086 0.361249 -11.690063
2.146594 0.361249 -11.690063
2.130101 0.361249 -11.690063
2.113609 0.361249 -11.690063
2.097116 0.361249 -11.690063
2.080623 0.361249 -11.690063
2.064131 0.361249 -11.690063
2.047638 0.361249 -11.690063
2.031146 0.361249 -11.690063
2.014653 0.361249 -11.690063
1.998161 0.361249 -11.690063
1.981668 0.361249 -11.690063
1.965175 0.361249 -11.690063
1.948683 0.361249 -11.690063
1.932190 0.361249 -11.690063
1.915698 0.361249 -11.690063
1.899205 0.361249 -11.690063
1.882712 0.361249 -11.690063
1.866220 0.361249 -11.690063
1.849727 0.361249 -11.690063
1.833235 0.361249 -11.690063
1.816742 0.361249 -11.690063
1.800250 0.361249 -11.690063
1.783757 0.361249 -11.690063
1.767264 0.361249 -11.690063
1.750772 0.361249 -11.690063
1.734279 0.361249 -11.690063
1.717787 0.361249 -11.690063
1.701294 0.361249 -11.690063
1.684802 0.361249 -11.690063
1.668309 0.361249 -11.690063
1.651816 0.361249 -11.690063
1.635324 0.361249 -11.690063
1.618831 0.361249 -11.690063
1.602339 0.361249 -11.690063
1.585846 0.361249 -11.690063
1.569354 0.361249 -11.690063
1.552861 0.361249 -11.690063
1.536368 0.361249 -11.690063
1.519876 0.361249 -11.690063
1.503383 0.361249 -11.690063
1.486891 0.361249 -11.690063
1.470398 0.361249 -11.690063
1.453905 0.361249 -11.690063
1.437413 0.361249 -11.690063
1.420920 0.361249 -11.690063
1.404428 0.361249 -11.690063
1.387935 0.361249 -11.690063
1.371443 0.361249 -11.690063
1.354950 0.361249 -11.690063
1.338457 0.361249 -11.690063
1.321965 0.361249 -11.690063
1.305472 0.361249 -11.690063
1.288980 0.361249 -11.690063
1.272487 0.361249 -11.690063
1.255995 0.361249 -11.690063
1.239502 0.361249 -11.690063
1.223009 0.361249 -11.690063
1.206517 0.361249 -11.690063
1.190024 0.361249 -11.690063
1.173532 0.361249 -11.690063
1.157039 0.361249 -11.690063
1.140547 0.361249 -11.690063
1.124054 0.361249 -11.690063
1.107561 0.361249 -11.690063
1.091069 0.361249 -11.690063
1.074576 0.361249 -11.690063
1.058084 0.361249 -11.690063
1.041591 0.361249 -11.690063
1.025098 0.361249 -11.690063
1.008606 0.361249 -11.690063
0.992113 0.361249 -11.690063
0.975621 0.361249 -11.690063
0.959128 0.361249 -11.690063
0.942636 0.361249 -11.690063
0.926143 0.361249 -11.690063
0.909650 0.361249 -11.690063
0.893158 0.361249 -11.690063
0.876665 0.361249 -11.690063
0.860173 0.361249 -11.690063
0.843680 0.361249 -11.690063
0.827188 0.361249 -11.690063
0.810695 0.361249 -11.690063
0.794202 0.361249 -11.690063
0.777710 0.361249 -11.690063
0.761217 0.361249 -11.690063
0.744725 0.361249 -11.690063
0.728232 0.361249 -11.690063
0.711740 0.361249 -11.690063
0.695247 0.361249 -11.690063
0.678754 0.361249 -11.690063
0.662262 0.361249 -11.690063
0.563306 0.361249 -11.690063
0.546814 0.361249 -11.690063
0.530321 0.361249 -11.690063
0.513829 0.361249 -11.690063
0.497336 0.361249 -11.690063
0.480843 0.361249 -11.690063
0.381888 0.361249 -11.690063
0.365395 0.361249 -11.690063
0.348903 0.361249 -11.690063
0.332410 0.361249 -11.690063
0.315918 0.361249 -11.690063
0.216962 0.361249 -11.690063
0.200470 0.361249 -11.690063
0.183977 0.361249 -11.690063
0.167484 0.361249 -11.690063
0.150992 0.361249 -11.690063
0.101514 0.361249 -11.690063
0.085022 0.361249 -11.690063
0.068529 0.361249 -11.690063
0.052036 0.361249 -11.690063
0.035544 0.361249 -11.690063
0.019051 0.361249 -11.690063
-0.063412 0.361249 -11.690063
-0.079904 0.361249 -11.690063
-0.096397 0.361249 -11.690063
-0.112889 0.361249 -11.690063
-3.758248 0.366118 -11.847611
-3.724764 0.361249 -11.690063
-3.741256 0.361249 -11.690063
-3.757749 0.361249 -11.690063
-3.774241 0.361249 -11.690063
-3.790734 0.361249 -11.690063
-3.807226 0.361249 -11.690063
-3.823719 0.361249 -11.690063
-3.840212 0.361249 -11.690063
-3.856704 0.361249 -11.690063
-3.873197 0.361249 -11.690063
-3.889689 0.361249 -11.690063
-3.906182 0.361249 -11.690063
-3.922674 0.361249 -11.690063
-3.939167 0.361249 -11.690063
-3.955660 0.361249 -11.690063
-3.972152 0.361249 -11.690063
-3.988645 0.361249 -11.690063
-4.005137 0.361249 -11.690063
-4.021630 0.361249 -11.690063
-4.038123 0.361249 -11.690063
-4.054615 0.361249 -11.690063
-4.071108 0.361249 -11.690063
-4.087600 0.361249 -11.690063
-4.104093 0.361249 -11.690063
-4.120585 0.361249 -11.690063
-4.137078 0.361249 -11.690063
-4.153571 0.361249 -11.690063
-4.170063 0.361249 -11.690063
-4.186556 0.361249 -11.690063
-4.203048 0.361249 -11.690063
-4.219541 0.361249 -11.690063
-4.236033 0.361249 -11.690063
-4.252526 0.361249 -11.690063
-4.269019 0.361249 -11.690063
-4.285511 0.361249 -11.690063
-4.302004 0.361249 -11.690063
-4.318496 0.361249 -11.690063
-4.334989 0.361249 -11.690063
-4.351481 0.361249 -11.690063
-4.367974 0.361249 -11.690063
-4.384467 0.361249 -11.690063
-4.400959 0.361249 -11.690063
-4.417452 0.361249 -11.690063
-4.433944 0.361249 -11.690063
-4.450437 0.361249 -11.690063
-4.466929 0.361249 -11.690063
-4.483422 0.361249 -11.690063
-4.499915 0.361249 -11.690063
-4.516407 0.361249 -11.690063
-4.532900 0.361249 -11.690063
-4.549392 0.361249 -11.690063
-4.565885 0.361249 -11.690063
-4.582377 0.361249 -11.690063
-4.598870 0.361249 -11.690063
-4.615363 0.361249 -11.690063
-4.745443 0.370108 -11.976741
-4.768837 0.370613 -11.993080
-4.766250 0.369102 -11.944195
2.443460 0.344756 -11.690063
2.426968 0.344756 -11.690063
2.410475 0.344756 -11.690063
2.393982 0.344756 -11.690063
2.377490 0.344756 -11.690063
2.360997 0.344756 -11.690063
2.344505 0.344756 -11.690063
2.328012 0.344756 -11.690063
2.311520 0.344756 -11.690063
2.295027 0.344756 -11.690063
2.278534 0.344756 -11.690063
2.262042 0.344756 -11.690063
2.245549 0.344756 -11.690063
2.229057 0.344756 -11.690063
2.212564 0.344756 -11.690063
2.196072 0.344756 -11.690063
2.179579 0.344756 -11.690063
2.163086 0.344756 -11.690063
2.146594 0.344756 -11.690063
2.130101 0.344756 -11.690063
2.113609 0.344756 -11.690063
2.097116 0.344756 -11.690063
2.080623 0.344756 -11.690063
2.064131 0.344756 -11.690063
2.047638 0.344756 -11.690063
2.031146 0.344756 -11.690063
2.014653 0.344756 -11.690063
1.998161 0.344756 -11.690063
1.981668 0.344756 -11.690063
1.965175 0.344756 -11.690063
1.948683 0.344756 -11.690063
1.932190 0.344756 -11.690063
1.915698 0.344756 -11.690063
1.899205 0.344756 -11.690063
1.882712 0.344756 -11.690063
1.866220 0.344756 -11.690063
1.849727 0.344756 -11.690063
1.833235 0.344756 -11.690063
1.816742 0.344756 -11.690063
1.800250 0.344756 -11.690063
1.783757 0.344756 -11.690063
1.767264 0.344756 -11.690063
1.750772 0.344756 -11.690063
1.734279 0.344756 -11.690063
1.717787 0.344756 -11.690063
1.701294 0.344756 -11.690063
1.684802 0.344756 -11.690063
1.668309 0.344756 -11.690063
1.651816 0.344756 -11.690063
1.635324 0.344756 -11.690063
1.618831 0.344756 -11.690063
1.602339 0.344756 -11.690063
1.585846 0.344756 -11.690063
1.569354 0.344756 -11.690063
1.552861 0.344756 -11.690063
1.536368 0.344756 -11.690063
1.519876 0.344756 -11.690063
1.503383 0.344756 -11.690063
1.486891 0.344756 -11.690063
1.470398 0.344756 -11.690063
1.453905 0.344756 -11.690063
1.437413 0.344756 -11.690063
1.420920 0.344756 -11.690063
1.404428 0.344756 -11.690063
1.387935 0.344756 -11.690063
1.371443 0.344756 -11.690063
1.354950 0.344756 -11.690063
1.338457 0.344756 -11.690063
1.321965 0.344756 -11.690063
1.305472 0.344756 -11.690063
1.288980 0.344756 -11.690063
1.272487 0.344756 -11.690063
1.255995 0.344756 -11.690063
1.239502 0.344756 -11.690063
1.223009 0.344756 -11.690063
1.206517 0.344756 -11.690063
1.190024 0.344756 -11.690063
1.173532 0.344756 -11.690063
1.157039 0.344756 -11.690063
1.140547 0.344756 -11.690063
1.124054 0.344756 -11.690063
1.107561 0.344756 -11.690063
1.091069 0.344756 -11.690063
1.074576 0.344756 -11.690063
1.058084 0.344756 -11.690063
1.041591 0.344756 -11.690063
1.025098 0.344756 -11.690063
1.008606 0.344756 -11.690063
0.992113 0.344756 -11.690063
0.975621 0.344756 -11.690063
0.959128 0.344756 -11.690063
0.942636 0.344756 -11.690063
0.926143 0.344756 -11.690063
0.909650 0.344756 -11.690063
0.893158 0.344756 -11.690063
0.876665 0.344756 -11.690063
0.860173 0.344756 -11.690063
0.843680 0.344756 -11.690063
0.827188 0.344756 -11.690063
0.810695 0.344756 -11.690063
0.794202 0.344756 -11.690063
0.777710 0.344756 -11.690063
0.761217 0.344756 -11.690063
0.744725 0.344756 -11.690063
0.728232 0.344756 -11.690063
0.711740 0.344756 -11.690063
0.695247 0.344756 -11.690063
0.678754 0.344756 -11.690063
0.662262 0.344756 -11.690063
0.563306 0.344756 -11.690063
0.546814 0.344756 -11.690063
0.530321 0.344756 -11.690063
0.513829 0.344756 -11.690063
0.497336 0.344756 -11.690063
0.480843 0.344756 -11.690063
0.365395 0.344756 -11.690063
0.348903 0.344756 -11.690063
0.332410 0.344756 -11.690063
0.315918 0.344756 -11.690063
0.216962 0.344756 -11.690063
0.200470 0.344756 -11.690063
0.183977 0.344756 -11.690063
0.167484 0.344756 -11.690063
0.150992 0.344756 -11.690063
0.101514 0.344756 -11.690063
0.085022 0.344756 -11.690063
0.068529 0.344756 -11.690063
0.052036 0.344756 -11.690063
0.035544 0.344756 -11.690063
0.019051 0.344756 -11.690063
-0.063412 0.344756 -11.690063
-0.079904 0.344756 -11.690063
-0.096397 0.344756 -11.690063
-0.112889 0.344756 -11.690063
-3.708271 0.344756 -11.690063
-3.724764 0.344756 -11.690063
-3.741256 0.344756 -11.690063
-3.757749 0.344756 -11.690063
-3.774241 0.344756 -11.690063
-3.790734 0.344756 -11.690063
-3.807226 0.344756 -11.690063
-3.823719 0.344756 -11.690063
-3.840212 0.344756 -11.690063
-3.856704 0.344756 -11.690063
-3.873197 0.344756 -11.690063
-3.889689 0.344756 -11.690063
-3.906182 0.344756 -11.690063
-3.922674 0.344756 -11.690063
-3.939167 0.344756 -11.690063
-3.955660 0.344756 -11.690063
-3.972152 0.344756 -11.690063
-3.988645 0.344756 -11.690063
-4.005137 0.344756 -11.690063
-4.021630 0.344756 -11.690063
-4.038123 0.344756 -11.690063
-4.054615 0.344756 -11.690063
-4.071108 0.344756 -11.690063
-4.087600 0.344756 -11.690063
-4.104093 0.344756 -11.690063
-4.120585 0.344756 -11.690063
-4.137078 0.344756 -11.690063
-4.153571 0.344756 -11.690063
-4.170063 0.344756 -11.690063
-4.186556 0.344756 -11.690063
-4.203048 0.344756 -11.690063
-4.219541 0.344756 -11.690063
-4.236033 0.344756 -11.690063
-4.252526 0.344756 -11.690063
-4.269019 0.344756 -11.690063
-4.285511 0.344756 -11.690063
-4.302004 0.344756 -11.690063
-4.318496 0.344756 -11.690063
-4.334989 0.344756 -11.690063
-4.351481 0.344756 -11.690063
-4.367974 0.344756 -11.690063
-4.384467 0.344756 -11.690063
-4.400959 0.344756 -11.690063
-4.417452 0.344756 -11.690063
-4.433944 0.344756 -11.690063
-4.450437 0.344756 -11.690063
-4.466929 0.344756 -11.690063
-4.483422 0.344756 -11.690063
-4.499915 0.344756 -11.690063
-4.516407 0.344756 -11.690063
-4.532900 0.344756 -11.690063
-4.549392 0.344756 -11.690063
-4.565885 0.344756 -11.690063
-4.582377 0.344756 -11.690063
-4.598870 0.344756 -11.690063
-4.615363 0.344756 -11.690063
-4.700614 0.349874 -11.863600
-4.749399 0.352251 -11.944195
-4.766250 0.352251 -11.944195
2.443460 0.328264 -11.690063
2.426968 0.328264 -11.690063
2.410475 0.328264 -11.690063
2.393982 0.328264 -11.690063
2.377490 0.328264 -11.690063
2.360997 0.328264 -11.690063
2.344505 0.328264 -11.690063
2.328012 0.328264 -11.690063
2.311520 0.328264 -11.690063
2.295027 0.328264 -11.690063
2.278534 0.328264 -11.690063
2.262042 0.328264 -11.690063
2.245549 0.328264 -11.690063
2.229057 0.328264 -11.690063
2.212564 0.328264 -11.690063
2.196072 0.328264 -11.690063
2.179579 0.328264 -11.690063
2.163086 0.328264 -11.690063
2.146594 0.328264 -11.690063
2.130101 0.328264 -11.690063
2.113609 0.328264 -11.690063
2.097116 0.328264 -11.690063
2.080623 0.328264 -11.690063
2.064131 0.328264 -11.690063
2.047638 0.328264 -11.690063
2.031146 0.328264 -11.690063
2.014653 0.328264 -11.690063
1.998161 0.328264 -11.690063
1.981668 0.328264 -11.690063
1.965175 0.328264 -11.690063
1.948683 0.328264 -11.690063
1.932190 0.328264 -11.690063
1.915698 0.328264 -11.690063
1.899205 0.328264 -11.690063
1.882712 0.328264 -11.690063
1.866220 0.328264 -11.690063
1.849727 0.328264 -11.690063
1.833235 0.328264 -11.690063
1.816742 0.328264 -11.690063
1.800250 0.328264 -11.690063
1.783757 0.328264 -11.690063
1.767264 0.328264 -11.690063
1.750772 0.328264 -11.690063
1.734279 0.328264 -11.690063
1.717787 0.328264 -11.690063
1.701294 0.328264 -11.690063
1.684802 0.328264 -11.690063
1.668309 0.328264 -11.690063
1.651816 0.328264 -11.690063
1.635324 0.328264 -11.690063
1.618831 0.328264 -11.690063
1.602339 0.328264 -11.690063
1.585846 0.328264 -11.690063
1.569354 0.328264 -11.690063
1.552861 0.328264 -11.690063
1.536368 0.328264 -11.690063
1.519876 0.328264 -11.690063
1.503383 0.328264 -11.690063
1.486891 0.328264 -11.690063
1.470398 0.328264 -11.690063
1.453905 0.328264 -11.690063
1.437413 0.328264 -11.690063
1.420920 0.328264 -11.690063
1.404428 0.328264 -11.690063
1.387935 0.328264 -11.690063
1.371443 0.328264 -11.690063
1.354950 0.328264 -11.690063
1.338457 0.328264 -11.690063
1.321965 0.328264 -11.690063
1.305472 0.328264 -11.690063
1.288980 0.328264 -11.690063
1.272487 0.328264 -11.690063
1.255995 0.328264 -11.690063
1.239502 0.328264 -11.690063
1.223009 0.328264 -11.690063
1.206517 0.328264 -11.690063
1.190024 0.328264 -11.690063
1.173532 0.328264 -11.690063
1.157039 0.328264 -11.690063
1.140547 0.328264 -11.690063
1.124054 0.328264 -11.690063
1.107561 0.328264 -11.690063
1.091069 0.328264 -11.690063
1.074576 0.328264 -11.690063
1.058084 0.328264 -11.690063
1.041591 0.328264 -11.690063
1.025098 0.328264 -11.690063
1.008606 0.328264 -11.690063
0.992113 0.328264 -11.690063
0.975621 0.328264 -11.690063
0.959128 0.328264 -11.690063
0.942636 0.328264 -11.690063
0.926143 0.328264 -11.690063
0.909650 0.328264 -11.690063
0.893158 0.328264 -11.690063
0.876665 0.328264 -11.690063
0.860173 0.328264 -11.690063
0.843680 0.328264 -11.690063
0.827188 0.328264 -11.690063
0.810695 0.328264 -11.690063
0.794202 0.328264 -11.690063
0.777710 0.328264 -11.690063
0.761217 0.328264 -11.690063
0.744725 0.328264 -11.690063
0.728232 0.328264 -11.690063
0.711740 0.328264 -11.690063
0.695247 0.328264 -11.690063
0.678754 0.328264 -11.690063
0.662262 0.328264 -11.690063
0.563306 0.328264 -11.690063
0.546814 0.328264 -11.690063
0.530321 0.328264 -11.690063
0.513829 0.328264 -11.690063
0.497336 0.328264 -11.690063
0.480843 0.328264 -11.690063
0.365395 0.328264 -11.690063
0.348903 0.328264 -11.690063
0.332410 0.328264 -11.690063
0.315918 0.328264 -11.690063
0.216962 0.328264 -11.690063
0.200470 0.328264 -11.690063
0.183977 0.328264 -11.690063
0.167484 0.328264 -11.690063
0.150992 0.328264 -11.690063
0.101514 0.328264 -11.690063
0.085022 0.328264 -11.690063
0.068529 0.328264 -11.690063
0.052036 0.328264 -11.690063
0.035544 0.328264 -11.690063
0.019051 0.328264 -11.690063
-0.063412 0.328264 -11.690063
-0.079904 0.328264 -11.690063
-0.096397 0.328264 -11.690063
-0.112889 0.328264 -11.690063
-3.708271 0.328264 -11.690063
-3.724764 0.328264 -11.690063
-3.741256 0.328264 -11.690063
-3.757749 0.328264 -11.690063
-3.774241 0.328264 -11.690063
-3.790734 0.328264 -11.690063
-3.807226 0.328264 -11.690063
-3.823719 0.328264 -11.690063
-3.840212 0.328264 -11.690063
-3.856704 0.328264 -11.690063
-3.873197 0.328264 -11.690063
-3.889689 0.328264 -11.690063
-3.906182 0.328264 -11.690063
-3.922674 0.328264 -11.690063
-3.939167 0.328264 -11.690063
-3.955660 0.328264 -11.690063
-3.972152 0.328264 -11.690063
-3.988645 0.328264 -11.690063
-4.005137 0.328264 -11.690063
-4.021630 0.328264 -11.690063
-4.038123 0.328264 -11.690063
-4.054615 0.328264 -11.690063
-4.071108 0.328264 -11.690063
-4.087600 0.328264 -11.690063
-4.104093 0.328264 -11.690063
-4.120585 0.328264 -11.690063
-4.137078 0.328264 -11.690063
-4.153571 0.328264 -11.690063
-4.170063 0.328264 -11.690063
-4.186556 0.328264 -11.690063
-4.203048 0.328264 -11.690063
-4.219541 0.328264 -11.690063
-4.236033 0.328264 -11.690063
-4.252526 0.328264 -11.690063
-4.269019 0.328264 -11.690063
-4.285511 0.328264 -11.690063
-4.302004 0.328264 -11.690063
-4.318496 0.328264 -11.690063
-4.334989 0.328264 -11.690063
-4.351481 0.328264 -11.690063
-4.367974 0.328264 -11.690063
-4.384467 0.328264 -11.690063
-4.400959 0.328264 -11.690063
-4.417452 0.328264 -11.690063
-4.433944 0.328264 -11.690063
-4.450437 0.328264 -11.690063
-4.466929 0.328264 -11.690063
-4.483422 0.328264 -11.690063
-4.499915 0.328264 -11.690063
-4.516407 0.328264 -11.690063
-4.532900 0.328264 -11.690063
-4.549392 0.328264 -11.690063
-4.565885 0.328264 -11.690063
-4.582377 0.328264 -11.690063
-4.598870 0.328264 -11.690063
-4.615363 0.328264 -11.690063
-4.631855 0.328264 -11.690063
-4.717352 0.333137 -11.863600
-4.734089 0.333137 -11.863600
2.443460 0.311771 -11.690063
2.426968 0.311771 -11.690063
2.410475 0.311771 -11.690063
2.393982 0.311771 -11.690063
2.377490 0.311771 -11.690063
2.360997 0.311771 -11.690063
2.344505 0.311771 -11.690063
2.328012 0.311771 -11.690063
2.311520 0.311771 -11.690063
2.295027 0.311771 -11.690063
2.278534 0.311771 -11.690063
2.262042 0.311771 -11.690063
2.245549 0.311771 -11.690063
2.229057 0.311771 -11.690063
2.212564 0.311771 -11.690063
2.196072 0.311771 -11.690063
2.179579 0.311771 -11.690063
2.163086 0.311771 -11.690063
2.146594 0.311771 -11.690063
2.130101 0.311771 -11.690063
2.113609 0.311771 -11.690063
2.097116 0.311771 -11.690063
2.080623 0.311771 -11.690063
2.064131 0.311771 -11.690063
2.047638 0.311771 -11.690063
2.031146 0.311771 -11.690063
2.014653 0.311771 -11.690063
1.998161 0.311771 -11.690063
1.981668 0.311771 -11.690063
1.965175 0.311771 -11.690063
1.948683 0.311771 -11.690063
1.932190 0.311771 -11.690063
1.915698 0.311771 -11.690063
1.899205 0.311771 -11.690063
1.882712 0.311771 -11.690063
1.866220 0.311771 -11.690063
1.849727 0.311771 -11.690063
1.833235 0.311771 -11.690063
1.816742 0.311771 -11.690063
1.800250 0.311771 -11.690063
1.783757 0.311771 -11.690063
1.767264 0.311771 -11.690063
1.750772 0.311771 -11.690063
1.734279 0.311771 -11.690063
1.717787 0.311771 -11.690063
1.701294 0.311771 -11.690063
1.684802 0.311771 -11.690063
1.668309 0.311771 -11.690063
1.651816 0.311771 -11.690063
1.635324 0.311771 -11.690063
1.618831 0.311771 -11.690063
1.602339 0.311771 -11.690063
1.585846 0.311771 -11.690063
1.569354 0.311771 -11.690063
1.552861 0.311771 -11.690063
1.536368 0.311771 -11.690063
1.519876 0.311771 -11.690063
1.503383 0.311771 -11.690063
